x, y, z, nx, ny, nz, score, idx
21.56793212890625, 7.538932323455811, 37.59036254882812, 0.963361918926239, -0.2682018876075745, -0.001202699029818177, 0.3619889914989471, 19
5.048848628997803, 17.34919738769531, 23.86194038391113, -0.9592300057411194, 0.2683789432048798, 0.08860357105731964, 0.5022569298744202, 24
38.96651458740234, 7.261208534240723, 10.91253566741943, -0.4319438934326172, -0.8857031464576721, -0.170159712433815, 0.2395901679992676, 47
22.48203277587891, 10.81287860870361, 36.20279693603516, 0.963361918926239, -0.2682018876075745, -0.001202699029818177, 1, 52
16.37840843200684, 7.164868831634521, 26.5324535369873, -0.2728164196014404, -0.9616470336914062, -0.02839265950024128, 0.2746484577655792, 53
15.78920650482178, 15.14840030670166, 39.55908966064453, 0.2694488763809204, 0.9630078673362732, 0.003624872770160437, 0.2070509940385818, 70
19.0771312713623, 5.272524833679199, 44.73258972167969, -0.2701812386512756, -0.9579153060913086, -0.09695499390363693, 0.3961877226829529, 79
11.35863971710205, 16.6284351348877, 48.18715286254883, 0.26709845662117, 0.9627968072891235, -0.04099650681018829, 0.355281263589859, 109
10.73908424377441, 16.75994300842285, 31.9823112487793, 0.2692484855651855, 0.9626555442810059, 0.02827723696827888, 0.3582821786403656, 126
11.30703830718994, 18.20043563842773, 10.60814762115479, 0.963361918926239, -0.2682018876075745, -0.001202699029818177, 0.4714933335781097, 151
3.27214527130127, 11.97854900360107, 47.16374206542969, -0.9614858627319336, 0.2695168852806091, -0.05390337854623795, 1, 155
7.560492515563965, 17.5422191619873, 44.20566940307617, 0.2681959271430969, 0.9627863168716431, -0.0333699993789196, 0.4763825833797455, 176
3.307661056518555, 11.23279094696045, 42.83612060546875, -0.9614858627319336, 0.2695168852806091, -0.05390337854623795, 1, 186
34.83980178833008, 4.124891757965088, 28.61116600036621, -0.897208034992218, 0.4384239017963409, -0.05293663218617439, 0.4063496589660645, 195
12.17672729492188, 7.960797309875488, 35.67270278930664, -0.2714017033576965, -0.960635781288147, -0.05932967364788055, 1, 208
9.56312084197998, 17.74423789978027, 18.6771183013916, 0.2671797573566437, 0.9600574374198914, 0.08309418708086014, 1, 223
35.91810989379883, 8.795428276062012, 10.64474868774414, -0.4241040050983429, -0.8901841640472412, -0.1664572060108185, 0.2916830778121948, 228
4.84410572052002, 15.17793369293213, 28.18559265136719, -0.9592300057411194, 0.2683789432048798, 0.08860357105731964, 0.29043909907341, 282
9.987071990966797, 8.590264320373535, 35.56904602050781, -0.9614858627319336, 0.2695168852806091, -0.05390337854623795, 0.8077728748321533, 308
22.96649742126465, 12.54801940917969, 8.60136890411377, 0.963361918926239, -0.2682018876075745, 0.001202699029818177, 1, 313
11.71591663360596, 16.32513236999512, 33.40171432495117, 0.270069420337677, 0.9628035426139832, 0.008477515541017056, 1, 329
14.67775726318359, 17.32572555541992, 9.482888221740723, 0.2680025100708008, 0.9545113444328308, 0.1307007223367691, 0.4510582387447357, 335
10.84813117980957, 8.792869567871094, 21.53144454956055, -0.2333201467990875, -0.9723646640777588, 0.008290563710033894, 1, 340
22.93347358703613, 12.42974758148193, 18.63003921508789, 0.963361918926239, -0.2682018876075745, 0.001202699029818177, 0.461375504732132, 364
8.720847129821777, 17.41822814941406, 46.47433853149414, 0.2676807940006256, 0.962405800819397, -0.04606599360704422, 0.3787882626056671, 369
21.14972305297852, 6.041060447692871, 42.80838394165039, 0.963361918926239, -0.2682018876075745, 0.001202699029818177, 1, 388
37.20213317871094, 5.138387680053711, 38.12423706054688, 0.438102513551712, 0.8987057209014893, 0.01985358819365501, 0.294664055109024, 399
14.76028060913086, 7.668665885925293, 22.69568252563477, -0.2735868394374847, -0.9618096947669983, -0.008511589840054512, 0.2421876639127731, 448
36.15002059936523, 4.936932563781738, 13.46467018127441, -0.897208034992218, 0.4384239017963409, -0.05293663218617439, 0.5596694350242615, 459
11.97131729125977, 17.30332374572754, 16.19022750854492, 0.2683789432048798, 0.9592300057411194, 0.08860357105731964, 1, 505
8.412121772766113, 13.38614368438721, 12.72506904602051, 0.2690542340278625, 0.9629949927330017, 0.01582671888172626, 0.2737176716327667, 536
13.8025369644165, 7.794923782348633, 8.122490882873535, 0.9614858627319336, -0.2695168852806091, 0.05390337854623795, 0.9254114031791687, 567
11.13001155853271, 8.710941314697266, 22.21185302734375, -0.2735803425312042, -0.9617869257926941, -0.01094321440905333, 1, 583
11.00430774688721, 8.715989112854004, 25.03215599060059, -0.274221658706665, -0.9616039991378784, -0.01096886675804853, 0.3311667144298553, 586
4.32708740234375, 10.77993869781494, 22.62972640991211, -0.270069420337677, -0.9628035426139832, -0.008477515541017056, 0.4469328224658966, 623
7.627929210662842, 9.754685401916504, 16.86773490905762, 0.9614858627319336, -0.2695168852806091, 0.05390337854623795, 0.9618389010429382, 630
37.02204132080078, 7.746563911437988, 36.308349609375, -0.8949059247970581, 0.4370470643043518, 0.09018431603908539, 0.2860253155231476, 633
35.02687072753906, 5.399991989135742, 35.81600952148438, -0.897208034992218, 0.4384239017963409, -0.05293663218617439, 0.4457412362098694, 639
21.76371383666992, 8.240153312683105, 9.338854789733887, 0.963361918926239, -0.2682018876075745, -0.001202699029818177, 0.2293556481599808, 663
3.176380395889282, 9.79266357421875, 45.3293571472168, -0.2500914633274078, -0.9631727933883667, -0.09875407069921494, 1, 668
18.18036651611328, 14.556715965271, 38.21266174316406, -0.963361918926239, 0.2682018876075745, -0.001202699029818177, 0.6143339872360229, 673
21.6816349029541, 7.946170806884766, 31.31703186035156, 0.963361918926239, -0.2682018876075745, -0.001202699029818177, 0.229491114616394, 686
4.96518087387085, 12.54622650146484, 19.91744041442871, -0.9614858627319336, 0.2695168852806091, -0.05390337854623795, 1, 708
34.36348342895508, 3.31818675994873, 29.98403549194336, -0.897208034992218, 0.4384239017963409, -0.05293663218617439, 0.4133544266223907, 719
17.54819488525391, 15.93901252746582, 14.32111167907715, 0.2659005522727966, 0.9585390090942383, 0.1024689897894859, 0.203344315290451, 725
21.02372932434082, 10.26409530639648, 41.34415435791016, -0.2686465382575989, -0.9629568457603455, -0.02330723591148853, 0.5136114358901978, 740
4.193540096282959, 13.18387985229492, 36.77933502197266, -0.9614858627319336, 0.2695168852806091, -0.05390337854623795, 1, 748
3.220416069030762, 11.0648946762085, 43.55289459228516, -0.9614858627319336, 0.2695168852806091, -0.05390337854623795, 1, 754
11.42367172241211, 16.59079742431641, 47.73617172241211, 0.26709845662117, 0.9627968072891235, -0.04099650681018829, 0.3510596454143524, 768
20.88845252990723, 5.105297088623047, 43.81483459472656, 0.963361918926239, -0.2682018876075745, -0.001202699029818177, 0.6263862252235413, 773
3.497692108154297, 11.84024524688721, 42.47347640991211, -0.9614858627319336, 0.2695168852806091, -0.05390337854623795, 1, 783
9.98912525177002, 17.67153549194336, 18.15353775024414, 0.2671797573566437, 0.9600574374198914, 0.08309418708086014, 1, 784
14.87269496917725, 7.781969547271729, 14.99510383605957, -0.2663342654705048, -0.9634672403335571, 0.02822897769510746, 0.2490354031324387, 793
11.69515800476074, 16.29422760009766, 37.68178176879883, 0.267821729183197, 0.963431179523468, 0.008483042009174824, 0.3239159882068634, 798
14.81990146636963, 7.616942405700684, 10.05800247192383, -0.2706680595874786, -0.9616823196411133, 0.04365613684058189, 0.2726816534996033, 803
13.44049644470215, 8.216156959533691, 16.97228240966797, -0.2713283002376556, -0.9624245762825012, 0.01095046941190958, 0.2160106003284454, 808
14.24241352081299, 8.012508392333984, 20.29928970336914, -0.2682018876075745, -0.963361918926239, -0.001202699029818177, 1, 818
14.36848640441895, 7.909854888916016, 27.02097320556641, -0.2680132985115051, -0.9631345868110657, -0.02325229719281197, 0.2009968757629395, 826
12.41010093688965, 16.2014274597168, 42.88031768798828, -0.963361918926239, 0.2682018876075745, 0.001202699029818177, 0.720005214214325, 840
11.95117282867432, 18.2763557434082, 8.092330932617188, 0.2655491232872009, 0.9551842212677002, 0.1307928562164307, 0.2175313234329224, 841
7.14861011505127, 16.44838333129883, 49.1832160949707, -0.9592300057411194, 0.2683789432048798, 0.08860357105731964, 1, 843
13.68602466583252, 7.592917919158936, 37.18000411987305, -0.2708067893981934, -0.9599019885063171, -0.07246942073106766, 0.6778604388237, 848
13.16344547271729, 7.736198902130127, 37.22919082641602, -0.2690193951129913, -0.9611444473266602, -0.06188709288835526, 1, 849
12.39599514007568, 7.712979316711426, 40.27257919311523, -0.2684391438961029, -0.9594451785087585, -0.08605465292930603, 0.7640162706375122, 854
8.048675537109375, 13.14719295501709, 34.96876525878906, 0.2690542340278625, 0.9629949927330017, 0.01582671888172626, 0.2903085350990295, 855
7.086287498474121, 17.67340660095215, 31.18668365478516, 0.2681959271430969, 0.9627863168716431, 0.0333699993789196, 0.5488093495368958, 857
12.99978446960449, 7.18483304977417, 44.1097297668457, -0.270782858133316, -0.9574571251869202, -0.09976211190223694, 1, 861
21.61941146850586, 7.723312377929688, 26.51625823974609, 0.963361918926239, -0.2682018876075745, -0.001202699029818177, 0.4767618179321289, 867
19.33552551269531, 14.17744827270508, 35.12359237670898, 0.2694488763809204, 0.9630078673362732, 0.003624872770160437, 1, 879
15.8072566986084, 7.454103469848633, 12.82544040679932, -0.265876829624176, -0.9633397459983826, 0.03586245328187943, 0.271244078874588, 891
6.431470394134521, 13.89070892333984, 15.89032363891602, 0.2690542340278625, 0.9629949927330017, 0.01582671888172626, 0.3969314396381378, 911
6.894692420959473, 18.15927124023438, 24.81305885314941, 0.2458196133375168, 0.9670568704605103, 0.06613421440124512, 0.2354112267494202, 915
5.507949352264404, 9.080763816833496, 44.70368576049805, -0.2683791220188141, -0.9581264853477478, -0.09983184933662415, 1, 924
16.04198455810547, 7.254448413848877, 31.86135673522949, -0.2647315263748169, -0.9632250070571899, -0.04598622769117355, 0.4435955584049225, 930
19.4653263092041, 5.423037528991699, 43.28927230834961, 0.9614858627319336, -0.2695168852806091, 0.05390337854623795, 1, 934
14.59797382354736, 7.174340724945068, 39.33824920654297, -0.2659827470779419, -0.9608467817306519, -0.07763132452964783, 1, 940
8.793113708496094, 13.02672576904297, 29.25906944274902, 0.2690542340278625, 0.9629949927330017, 0.01582671888172626, 0.2279460281133652, 941
14.71826362609863, 6.855198860168457, 42.59987258911133, -0.2659317851066589, -0.9596668481826782, -0.09121331572532654, 1, 945
16.51397895812988, 15.12172698974609, 33.039306640625, 0.269063800573349, 0.9630292654037476, 0.01339231617748737, 1, 952
21.54411125183105, 7.453621864318848, 21.0587272644043, 0.963361918926239, -0.2682018876075745, -0.001202699029818177, 0.3019287586212158, 956
23.14455223083496, 13.18573951721191, 9.866788864135742, 0.963361918926239, -0.2682018876075745, 0.001202699029818177, 1, 965
18.12030601501465, 6.827149868011475, 13.33605480194092, -0.2652447819709778, -0.9635170698165894, 0.03577720373868942, 0.245252937078476, 972
5.057439804077148, 12.72889232635498, 19.18489456176758, -0.9614858627319336, 0.2695168852806091, -0.05390337854623795, 1, 977
9.612156867980957, 9.154376029968262, 15.52858448028564, 0.9614858627319336, -0.2695168852806091, 0.05390337854623795, 1, 982
10.78273677825928, 15.82612609863281, 50.70234298706055, 0.2682018876075745, 0.963361918926239, 0.001202699029818177, 0.2252432554960251, 984
18.22144317626953, 6.898234844207764, 21.62263107299805, -0.2688247859477997, -0.9631883502006531, -0.001205492299050093, 1, 988
16.69399833679199, 6.982188701629639, 33.60181045532227, -0.2647315263748169, -0.9632250070571899, -0.04598622769117355, 0.3308201134204865, 1011
16.87162208557129, 6.738760471343994, 36.71402359008789, -0.2660270035266876, -0.961983859539032, -0.06177878007292747, 0.3072015047073364, 1016
21.32810401916504, 10.28170585632324, 37.04930877685547, -0.2686465382575989, -0.9629568457603455, -0.02330723591148853, 0.4278743863105774, 1018
16.27690887451172, 6.704858779907227, 39.33676910400391, -0.2659827470779419, -0.9608467817306519, -0.07763132452964783, 1, 1023
16.51873779296875, 6.708329200744629, 38.4549674987793, -0.2659827470779419, -0.9608467817306519, -0.07763132452964783, 0.481593132019043, 1024
7.849510669708252, 13.2567834854126, 31.44147109985352, 0.2690542340278625, 0.9629949927330017, 0.01582671888172626, 0.26201131939888, 1026
36.47372055053711, 5.434190273284912, 40.803466796875, 0.438102513551712, 0.8987057209014893, 0.01985358819365501, 0.3169696033000946, 1033
17.09439468383789, 6.857997417449951, 12.96951198577881, -0.2250740975141525, -0.9737162590026855, 0.03490453958511353, 0.2448973953723907, 1038
20.04981803894043, 6.390826225280762, 19.55236625671387, -0.2710593640804291, -0.9625619053840637, -0.001204708241857588, 0.4008896350860596, 1047
18.78615379333496, 6.717371940612793, 25.32957458496094, -0.2651134133338928, -0.9639377593994141, -0.02321269549429417, 0.3586581349372864, 1060
19.14166069030762, 5.853952407836914, 39.99322509765625, -0.2684391438961029, -0.9594451785087585, -0.08605465292930603, 0.2851288914680481, 1088
17.85810089111328, 6.175794124603271, 40.41822814941406, -0.2690024673938751, -0.9599946141242981, -0.07776848971843719, 0.2598151862621307, 1089
21.6622371673584, 7.876705646514893, 29.29499053955078, 0.963361918926239, -0.2682018876075745, -0.001202699029818177, 0.3190234899520874, 1091
12.31740283966064, 8.503084182739258, 15.23489761352539, -0.2692484855651855, -0.9626555442810059, 0.02827723696827888, 0.3504083156585693, 1105
13.02337455749512, 8.259461402893066, 13.73391437530518, -0.2705091536045074, -0.9622220396995544, 0.0308800395578146, 0.3235551118850708, 1107
12.92379093170166, 8.248907089233398, 12.5049934387207, -0.2705091536045074, -0.9622220396995544, 0.0308800395578146, 0.3344303667545319, 1109
12.78317832946777, 8.419366836547852, 19.37793159484863, -0.2682018876075745, -0.963361918926239, 0.001202699029818177, 1, 1128
9.30577278137207, 9.299468994140625, 21.68788719177246, 0.9614858627319336, -0.2695168852806091, 0.05390337854623795, 0.5584163069725037, 1129
12.33779335021973, 8.478541374206543, 26.91864776611328, -0.2702974081039429, -0.9625523686408997, -0.02079210989177227, 0.2280639857053757, 1136
11.22404003143311, 8.680397987365723, 30.01470756530762, -0.2688125669956207, -0.9625223875045776, -0.03592425957322121, 0.2838677167892456, 1145
21.88691902160645, 8.681422233581543, 34.92887115478516, 0.963361918926239, -0.2682018876075745, -0.001202699029818177, 1, 1151
35.84494018554688, 5.053805828094482, 19.46392631530762, -0.897208034992218, 0.4384239017963409, -0.05293663218617439, 0.2973915636539459, 1164
10.44701480865479, 16.76492500305176, 45.07254028320312, 0.2681959271430969, 0.9627863168716431, -0.0333699993789196, 0.2823549509048462, 1166
11.20941734313965, 7.545878887176514, 45.43313980102539, -0.270782858133316, -0.9574571251869202, -0.09976211190223694, 1, 1170
8.74162483215332, 18.36121940612793, 14.60842895507812, 0.2659005522727966, 0.9585390090942383, 0.1024689897894859, 0.3464397192001343, 1178
17.92827987670898, 14.57514572143555, 34.53818130493164, 0.270069420337677, 0.9628035426139832, 0.008477515541017056, 0.8192427754402161, 1179
11.72390174865723, 8.560275077819824, 11.95611095428467, 0.9614858627319336, -0.2695168852806091, 0.05390337854623795, 1, 1182
9.04300594329834, 13.1879358291626, 14.16662406921387, 0.2690542340278625, 0.9629949927330017, 0.01582671888172626, 0.2096239328384399, 1185
21.21085548400879, 6.260034084320068, 34.10921859741211, 0.963361918926239, -0.2682018876075745, -0.001202699029818177, 1, 1190
10.6147928237915, 9.012249946594238, 17.61198806762695, -0.2684421837329865, -0.9632337689399719, 0.01093203481286764, 0.4174163043498993, 1199
10.31338691711426, 9.090115547180176, 24.58790588378906, -0.270069420337677, -0.9628035426139832, -0.008477515541017056, 0.2931078672409058, 1212
8.004980087280273, 19.5650463104248, 6.786659240722656, 0.266706109046936, 0.9540383219718933, 0.1366703063249588, 0.4103001654148102, 1213
9.814391136169434, 9.221501350402832, 25.11342430114746, -0.2674100399017334, -0.9634087085723877, -0.01831575483083725, 0.2769885063171387, 1215
9.019881248474121, 9.210993766784668, 31.87510871887207, -0.2682919800281525, -0.9621075391769409, -0.04866691678762436, 0.4135499596595764, 1223
4.099182605743408, 13.1745433807373, 38.40840911865234, -0.9614858627319336, 0.2695168852806091, -0.05390337854623795, 1, 1250
8.322664260864258, 8.304204940795898, 45.88189315795898, -0.2658289968967438, -0.9582810997962952, -0.1050348654389381, 1, 1253
8.389620780944824, 9.400612831115723, 9.755804061889648, -0.2723806798458099, -0.9614167213439941, 0.03855616971850395, 0.354650467634201, 1266
8.691505432128906, 9.519768714904785, 15.31939220428467, -0.2696752846240997, -0.9627773761749268, 0.01830375194549561, 0.4061650931835175, 1276
6.287396907806396, 8.789262771606445, 46.63918685913086, -0.2658289968967438, -0.9582810997962952, -0.1050348654389381, 1, 1287
6.283040523529053, 8.872188568115234, 45.89230346679688, -0.2658289968967438, -0.9582810997962952, -0.1050348654389381, 1, 1289
16.72832679748535, 16.79325866699219, 9.455509185791016, -0.963361918926239, 0.2682018876075745, -0.001202699029818177, 0.559364914894104, 1304
9.672887802124023, 9.006525039672852, 13.51545810699463, -0.3382361531257629, -0.9406794309616089, 0.02680362015962601, 0.3999162614345551, 1307
7.427351951599121, 9.495318412780762, 34.85122680664062, -0.2707450091838837, -0.9608299136161804, -0.05918611586093903, 0.2688327431678772, 1308
7.871119976043701, 9.654335975646973, 29.03244209289551, -0.2711087763309479, -0.9618790149688721, -0.03590024635195732, 1, 1317
21.56693840026855, 10.05719947814941, 43.65620040893555, -0.2686465382575989, -0.9629568457603455, -0.02330723591148853, 0.4846199750900269, 1322
6.941144943237305, 9.609085083007812, 6.185359001159668, -0.2701680958271027, -0.9612957835197449, 0.05403361842036247, 0.3039272725582123, 1338
8.034017562866211, 17.33825492858887, 41.54235076904297, 0.2696752846240997, 0.9627773761749268, -0.01830375194549561, 0.9913493990898132, 1341
6.646463394165039, 10.08579349517822, 15.12002372741699, -0.2698872685432434, -0.9624746441841125, 0.02834432385861874, 0.9802094697952271, 1354
5.42267370223999, 9.512270927429199, 41.92203521728516, -0.2708203494548798, -0.9587810635566711, -0.08599508553743362, 1, 1373
5.283241271972656, 9.925788879394531, 37.38777542114258, -0.2708067893981934, -0.9599019885063171, -0.07246942073106766, 0.4291760623455048, 1377
6.159150123596191, 10.05861759185791, 30.92951583862305, -0.2676807940006256, -0.962405800819397, -0.04606599360704422, 0.2898758947849274, 1389
6.005730628967285, 10.11348915100098, 30.67732048034668, -0.2711087763309479, -0.9618790149688721, -0.03590024635195732, 1, 1391
5.719173431396484, 10.28360557556152, 28.23122596740723, -0.2681959271430969, -0.9627863168716431, -0.0333699993789196, 0.4874013066291809, 1394
5.859697341918945, 10.36061668395996, 21.53019905090332, -0.270069420337677, -0.9628035426139832, -0.008477515541017056, 0.3403394520282745, 1408
5.940743923187256, 10.33783912658691, 20.44336700439453, -0.2672024369239807, -0.9636214971542358, 0.006045304238796234, 0.5171295404434204, 1412
5.859999179840088, 10.34567356109619, 18.22426986694336, -0.267821729183197, -0.963431179523468, 0.008483042009174824, 0.5242905616760254, 1415
36.92351150512695, 10.94843864440918, 19.62435150146484, -0.8949059247970581, 0.4370470643043518, 0.09018431603908539, 0.2290234714746475, 1420
36.84273910522461, 5.677026748657227, 17.77561569213867, 0.4382235407829285, 0.8988188505172729, 0.009211906231939793, 0.294752448797226, 1436
5.281556129455566, 13.7508544921875, 20.27189445495605, -0.9614858627319336, 0.2695168852806091, -0.05390337854623795, 1, 1448
22.79475784301758, 11.93291282653809, 17.6572322845459, 0.963361918926239, -0.2682018876075745, -0.001202699029818177, 0.3807111382484436, 1471
16.51479911804199, 16.02847671508789, 16.76461791992188, -0.963361918926239, 0.2682018876075745, 0.001202699029818177, 0.5543234348297119, 1487
17.81125259399414, 6.180716514587402, 38.45377731323242, -0.2708067893981934, -0.9599019885063171, -0.07246942073106766, 1, 1490
35.19566345214844, 3.882411241531372, 20.75543403625488, -0.897208034992218, 0.4384239017963409, -0.05293663218617439, 0.3807654082775116, 1520
4.295439720153809, 20.12799453735352, 7.393010139465332, -0.9592300057411194, 0.2683789432048798, 0.08860357105731964, 1, 1530
5.777027606964111, 14.61606597900391, 39.92181777954102, -0.9592300057411194, 0.2683789432048798, 0.08860357105731964, 1, 1535
6.443593502044678, 17.61222648620605, 38.09128189086914, -0.9592300057411194, 0.2683789432048798, 0.08860357105731964, 1, 1540
36.33886337280273, 8.672846794128418, 24.90268135070801, -0.8949059247970581, 0.4370470643043518, 0.09018431603908539, 0.4908294379711151, 1568
9.14512825012207, 17.79013442993164, 19.50722885131836, 0.2671797573566437, 0.9600574374198914, 0.08309418708086014, 0.7085608839988708, 1587
7.272557735443115, 13.30076599121094, 39.09332656860352, 0.2690542340278625, 0.9629949927330017, 0.01582671888172626, 0.3429957330226898, 1595
35.70180511474609, 9.731730461120605, 13.31046199798584, -0.8949059247970581, 0.4370470643043518, 0.09018431603908539, 0.4769314825534821, 1605
13.39892578125, 6.689565658569336, 46.44095611572266, -0.267673522233963, -0.9570960402488708, -0.1109865829348564, 1, 1621
36.99671173095703, 6.745040893554688, 40.96274185180664, -0.8949059247970581, 0.4370470643043518, 0.09018431603908539, 0.385038822889328, 1636
21.90767860412598, 8.755779266357422, 28.77884292602539, 0.963361918926239, -0.2682018876075745, -0.001202699029818177, 0.3194301724433899, 1650
21.06195259094238, 5.726693630218506, 35.01123809814453, 0.963361918926239, -0.2682018876075745, 0.001202699029818177, 1, 1656
9.835864067077637, 18.62825202941895, 9.861332893371582, 0.2669234871864319, 0.9559279084205627, 0.1222851425409317, 1, 1727
34.39430618286133, 2.993245840072632, 26.8475456237793, -0.897208034992218, 0.4384239017963409, -0.05293663218617439, 0.4049580097198486, 1732
7.232576370239258, 13.18175792694092, 47.59878158569336, 0.2690542340278625, 0.9629949927330017, 0.01582671888172626, 0.2777764201164246, 1755
36.56156539916992, 6.891262531280518, 35.8730583190918, -0.8949059247970581, 0.4370470643043518, 0.09018431603908539, 0.2977072596549988, 1764
5.136229515075684, 10.39564895629883, 11.75587177276611, -0.2675591111183167, -0.9629661440849304, 0.03329076245427132, 0.7693586945533752, 1806
8.831931114196777, 17.41899108886719, 28.61800765991211, 0.2682919800281525, 0.9621075391769409, 0.04866691678762436, 0.3005130589008331, 1823
21.14658164978027, 6.029809951782227, 43.08624267578125, 0.963361918926239, -0.2682018876075745, 0.001202699029818177, 0.8758081793785095, 1843
21.9527530670166, 13.49293231964111, 43.40388870239258, 0.2692484855651855, 0.9626555442810059, -0.02827723696827888, 1, 1883
8.470718383789062, 17.22723579406738, 34.01595687866211, 0.270069420337677, 0.9628035426139832, 0.008477515541017056, 0.4775248467922211, 1914
15.04132080078125, 7.588253974914551, 20.54483413696289, -0.2751964032649994, -0.9613689780235291, 0.006061594933271408, 1, 1944
35.45481872558594, 6.012302398681641, 37.1468391418457, 0.438102513551712, 0.8987057209014893, 0.01985358819365501, 0.4646121263504028, 1963
3.091996669769287, 11.75952243804932, 49.27656555175781, -0.9614858627319336, 0.2695168852806091, -0.05390337854623795, 0.2450459748506546, 1967
35.4581413269043, 7.795427799224854, 18.23789215087891, -0.4375651478767395, -0.8907070755958557, -0.1231979578733444, 0.3738829493522644, 1985
6.270208358764648, 17.21588897705078, 37.41577529907227, -0.9592300057411194, 0.2683789432048798, 0.08860357105731964, 1, 2015
20.12200164794922, 9.782308578491211, 34.57349395751953, 0.2690542340278625, 0.9629949927330017, 0.01582671888172626, 0.4016663134098053, 2056
37.58611679077148, 6.640979766845703, 19.0384635925293, -0.4375651478767395, -0.8907070755958557, -0.1231979578733444, 0.2677978873252869, 2070
8.007327079772949, 17.4633617401123, 29.81547164916992, 0.2681959271430969, 0.9627863168716431, 0.0333699993789196, 0.2951138615608215, 2093
21.3170108795166, 13.62591934204102, 34.86043930053711, 0.2694488763809204, 0.9630078673362732, 0.003624872770160437, 0.9248584508895874, 2116
21.83539962768555, 8.496895790100098, 35.92546463012695, 0.963361918926239, -0.2682018876075745, -0.001202699029818177, 0.4232576489448547, 2143
5.590844631195068, 10.12362575531006, 11.59366416931152, -0.2166729420423508, -0.9756267666816711, 0.03471555560827255, 0.3783811926841736, 2144
14.64450454711914, 15.62108135223389, 34.55855560302734, 0.269063800573349, 0.9630292654037476, 0.01339231617748737, 0.2157297432422638, 2156
21.56110954284668, 9.600998878479004, 20.16553688049316, 0.2690542340278625, 0.9629949927330017, 0.01582671888172626, 0.5672063827514648, 2170
6.836019039154053, 15.16825866699219, 49.66595840454102, -0.9592300057411194, 0.2683789432048798, 0.08860357105731964, 0.891450822353363, 2212
4.79490852355957, 10.9227933883667, 14.8927059173584, -0.9614858627319336, 0.2695168852806091, -0.05390337854623795, 1, 2213
4.118787288665771, 11.98715209960938, 32.1739501953125, -0.9614858627319336, 0.2695168852806091, -0.05390337854623795, 1, 2250
35.46038818359375, 3.132747173309326, 10.31124401092529, -0.897208034992218, 0.4384239017963409, -0.05293663218617439, 0.6074617505073547, 2286
3.636970281600952, 12.70204067230225, 44.27278518676758, -0.9614858627319336, 0.2695168852806091, -0.05390337854623795, 1, 2309
14.50444984436035, 15.63471603393555, 37.184814453125, 0.2682018876075745, 0.963361918926239, -0.001202699029818177, 0.2479726225137711, 2324
22.24855613708496, 13.5879487991333, 30.61742401123047, 0.2675802707672119, 0.9630423188209534, 0.03082721866667271, 0.2212175875902176, 2354
4.781587600708008, 13.98065090179443, 40.11300277709961, 0.2690542340278625, 0.9629949927330017, 0.01582671888172626, 0.251047670841217, 2361
4.189640998840332, 10.72724342346191, 27.35014152526855, -0.2450399100780487, -0.9692957997322083, -0.02052058465778828, 1, 2370
20.0668773651123, 9.810638427734375, 33.72806167602539, 0.2690542340278625, 0.9629949927330017, 0.01582671888172626, 0.5190542936325073, 2372
21.08271408081055, 13.98120498657227, 26.06830024719238, 0.2696308493614197, 0.9607971906661987, 0.06455949693918228, 0.2158080041408539, 2375
5.452447891235352, 13.78805541992188, 17.42204856872559, -0.9614858627319336, 0.2695168852806091, -0.05390337854623795, 0.8965398669242859, 2408
14.4286413192749, 15.99386501312256, 24.63136863708496, -0.963361918926239, 0.2682018876075745, 0.001202699029818177, 0.6395156979560852, 2409
16.38396644592285, 15.3386287689209, 47.74526214599609, 0.2676807940006256, 0.962405800819397, -0.04606599360704422, 0.2154449671506882, 2411
3.875713109970093, 13.67401885986328, 44.85230255126953, -0.9614858627319336, 0.2695168852806091, -0.05390337854623795, 0.2689508199691772, 2416
3.859607934951782, 11.83436012268066, 36.0182991027832, -0.9614858627319336, 0.2695168852806091, -0.05390337854623795, 1, 2443
13.33205604553223, 8.001105308532715, 14.86557865142822, -0.2438682913780212, -0.96940678358078, 0.02790532633662224, 0.2531485557556152, 2463
34.50559234619141, 5.84538745880127, 48.05222320556641, -0.897208034992218, 0.4384239017963409, -0.05293663218617439, 0.3798668682575226, 2495
5.684000492095947, 13.77098178863525, 37.34982299804688, 0.2690542340278625, 0.9629949927330017, 0.01582671888172626, 0.4102514684200287, 2500
10.03913021087646, 18.8842830657959, 7.569634437561035, 0.266706109046936, 0.9540383219718933, 0.1366703063249588, 0.3104617297649384, 2521
37.17568969726562, 5.294156551361084, 31.68742752075195, 0.438102513551712, 0.8987057209014893, 0.01985358819365501, 0.2765019237995148, 2573
21.08450508117676, 5.807464122772217, 35.28005981445312, 0.963361918926239, -0.2682018876075745, 0.001202699029818177, 1, 2578
6.989303112030029, 18.73342132568359, 17.11380195617676, 0.2683789432048798, 0.9592300057411194, 0.08860357105731964, 0.7964661717414856, 2595
21.40038108825684, 15.8281364440918, 6.764762878417969, 0.266706109046936, 0.9540383219718933, 0.1366703063249588, 0.6489245891571045, 2600
21.27972984313965, 6.506701469421387, 15.16586112976074, 0.963361918926239, -0.2682018876075745, 0.001202699029818177, 0.2327086925506592, 2641
3.915325403213501, 13.5651912689209, 43.60946655273438, -0.9614858627319336, 0.2695168852806091, -0.05390337854623795, 0.2800187170505524, 2649
4.706826686859131, 14.03332233428955, 38.03531646728516, 0.2690542340278625, 0.9629949927330017, 0.01582671888172626, 0.2417233288288116, 2653
18.73497009277344, 6.578098297119141, 17.74179077148438, -0.9614858627319336, 0.2695168852806091, -0.05390337854623795, 0.5744277238845825, 2694
5.184998989105225, 13.32543659210205, 19.87732696533203, -0.9614858627319336, 0.2695168852806091, -0.05390337854623795, 1, 2712
36.87707901000977, 8.545475959777832, 30.93571090698242, -0.8949059247970581, 0.4370470643043518, 0.09018431603908539, 0.4377518594264984, 2717
20.90519714355469, 13.71967887878418, 39.65720367431641, 0.2684421837329865, 0.9632337689399719, -0.01093203481286764, 1, 2729
4.735392093658447, 12.31680202484131, 22.86008834838867, -0.9614858627319336, 0.2695168852806091, -0.05390337854623795, 1, 2731
36.44467163085938, 5.744274139404297, 27.47148513793945, 0.438102513551712, 0.8987057209014893, 0.01985358819365501, 0.3498231768608093, 2750
9.729552268981934, 12.93710517883301, 18.03103065490723, 0.2690542340278625, 0.9629949927330017, 0.01582671888172626, 0.2009970992803574, 2766
4.418688297271729, 12.37652111053467, 28.77935028076172, -0.9614858627319336, 0.2695168852806091, -0.05390337854623795, 1, 2787
9.614102363586426, 17.84901809692383, 17.34832954406738, 0.2683789432048798, 0.9592300057411194, 0.08860357105731964, 1, 2801
4.877342700958252, 12.25031185150146, 20.01007843017578, -0.9614858627319336, 0.2695168852806091, -0.05390337854623795, 1, 2836
13.75879383087158, 15.72498798370361, 36.89596176147461, 0.2694488763809204, 0.9630078673362732, 0.003624872770160437, 0.2558434009552002, 2847
9.038276672363281, 9.300948143005371, 23.00004768371582, -0.2735868394374847, -0.9618096947669983, -0.008511589840054512, 0.4722283482551575, 2859
11.10356998443604, 18.53280639648438, 8.896410942077637, 0.2674195766448975, 0.9550699591636658, 0.1277817785739899, 0.2675706148147583, 2893
9.874459266662598, 8.127038955688477, 41.95553207397461, -0.2690416574478149, -0.9590241312980652, -0.08882236480712891, 1, 2904
16.76479911804199, 14.90807723999023, 33.83185195922852, 0.270069420337677, 0.9628035426139832, 0.008477515541017056, 0.8139877319335938, 2931
35.59149169921875, 5.871413707733154, 40.49112701416016, 0.438102513551712, 0.8987057209014893, 0.01985358819365501, 0.3479268550872803, 2945
7.751037120819092, 17.6937198638916, 49.35404586791992, 0.2689377069473267, 0.9619213342666626, -0.0487840473651886, 0.2826872766017914, 2979
22.03215217590332, 15.56642055511475, 7.356910705566406, 0.266706109046936, 0.9540383219718933, 0.1366703063249588, 1, 3002
7.10118579864502, 9.933414459228516, 19.73251533508301, -0.9614858627319336, 0.2695168852806091, -0.05390337854623795, 1, 3016
11.37063789367676, 7.693060398101807, 43.42305755615234, -0.9614858627319336, 0.2695168852806091, -0.05390337854623795, 0.6184030771255493, 3035
11.25110912322998, 16.44207954406738, 34.73580169677734, 0.270069420337677, 0.9628035426139832, 0.008477515541017056, 0.3358362019062042, 3055
11.7801628112793, 16.31106948852539, 33.15684509277344, 0.2696752846240997, 0.9627773761749268, 0.01830375194549561, 0.2679215371608734, 3061
15.32843589782715, 6.213611125946045, 46.92552947998047, 0.9614858627319336, -0.2695168852806091, 0.05390337854623795, 0.960321307182312, 3105
22.8919563293457, 12.28104782104492, 16.63047981262207, 0.963361918926239, -0.2682018876075745, -0.001202699029818177, 0.3806374073028564, 3112
20.02134895324707, 14.21102333068848, 27.46502494812012, 0.2683237493038177, 0.9622214436531067, 0.04617664590477943, 0.2350128144025803, 3117
15.24161911010742, 17.4181957244873, 7.730016231536865, 0.963361918926239, -0.2682018876075745, -0.001202699029818177, 0.6358416676521301, 3138
10.4946756362915, 18.75608444213867, 7.576635837554932, 0.266706109046936, 0.9540383219718933, 0.1366703063249588, 0.2896290123462677, 3157
35.62291717529297, 5.796263217926025, 29.14252853393555, -0.897208034992218, 0.4384239017963409, -0.05293663218617439, 0.359701931476593, 3164
6.591880798339844, 15.18074703216553, 46.99924087524414, -0.9592300057411194, 0.2683789432048798, 0.08860357105731964, 0.7054463028907776, 3172
11.55759429931641, 7.797215938568115, 40.61993789672852, -0.9614858627319336, 0.2695168852806091, -0.05390337854623795, 0.6495813131332397, 3178
20.14010810852051, 14.1127986907959, 32.8669548034668, 0.2686465382575989, 0.9629568457603455, 0.02330723591148853, 0.3359051942825317, 3198
18.91403007507324, 6.354390144348145, 13.45346355438232, -0.9614858627319336, 0.2695168852806091, -0.05390337854623795, 1, 3258
17.72900772094727, 11.49826145172119, 28.66619300842285, -0.2692663967609406, -0.9627195596694946, -0.02582006342709064, 0.2545130550861359, 3288
12.55355930328369, 8.15621280670166, 29.63651466369629, -0.2727964818477631, -0.9615767598152161, -0.03085933066904545, 0.2522907853126526, 3289
36.54563140869141, 5.771076679229736, 23.18558883666992, 0.4382235407829285, 0.8988188505172729, 0.009211906231939793, 0.3898248970508575, 3295
8.579787254333496, 17.35711097717285, 29.72752380371094, -0.963361918926239, 0.2682018876075745, -0.001202699029818177, 0.5972675085067749, 3298
18.58971214294434, 11.26186847686768, 28.52481460571289, -0.2692663967609406, -0.9627195596694946, -0.02582006342709064, 0.3718925416469574, 3300
7.141073226928711, 14.38127040863037, 31.31929397583008, -0.2686303853988647, -0.962898850440979, -0.02575907856225967, 0.3375643193721771, 3308
3.840542316436768, 12.98626136779785, 42.06727981567383, -0.9614858627319336, 0.2695168852806091, -0.05390337854623795, 0.9667794108390808, 3310
18.49091911315918, 11.27258396148682, 29.14148712158203, -0.2686303853988647, -0.962898850440979, -0.02575907856225967, 0.3546378016471863, 3313
22.04545211791992, 13.52557373046875, 43.84931182861328, -0.963361918926239, 0.2682018876075745, 0.001202699029818177, 0.824394702911377, 3315
13.99410057067871, 7.717570781707764, 33.83156204223633, -0.9614858627319336, 0.2695168852806091, -0.05390337854623795, 0.7119489908218384, 3337
5.588374137878418, 13.15092658996582, 11.85013198852539, -0.9614858627319336, 0.2695168852806091, -0.05390337854623795, 1, 3338
35.9249382019043, 5.736282825469971, 39.25208282470703, 0.438102513551712, 0.8987057209014893, 0.01985358819365501, 0.3359396457672119, 3352
5.214726448059082, 10.50786018371582, 16.42242240905762, -0.2575645744800568, -0.9661694765090942, 0.01330145727843046, 0.430139034986496, 3359
5.23442268371582, 10.48740386962891, 15.49967002868652, -0.2610186636447906, -0.9651619791984558, 0.01821060292422771, 0.3904559016227722, 3369
19.21143341064453, 15.99396514892578, 9.990900039672852, 0.2669234871864319, 0.9559279084205627, 0.1222851425409317, 0.2226295173168182, 3374
20.80926132202148, 9.724782943725586, 25.79396057128906, 0.2690542340278625, 0.9629949927330017, 0.01582671888172626, 0.5836715698242188, 3376
5.702222347259521, 14.91862392425537, 26.99098014831543, -0.2694301307201385, -0.9622504711151123, -0.03849001973867416, 0.3594810962677002, 3384
13.88102436065674, 7.599854946136475, 35.25566482543945, -0.9614858627319336, 0.2695168852806091, -0.05390337854623795, 0.5487121343612671, 3385
6.008959293365479, 14.92463397979736, 24.73228454589844, -0.2694301307201385, -0.9622504711151123, -0.03849001973867416, 0.4534025192260742, 3416
4.6361083984375, 15.38172626495361, 22.91463470458984, -0.2694301307201385, -0.9622504711151123, -0.03849001973867416, 0.5801534056663513, 3430
7.656648635864258, 13.41054821014404, 24.91289901733398, 0.2690542340278625, 0.9629949927330017, 0.01582671888172626, 0.3108954727649689, 3432
35.3187255859375, 5.786960124969482, 34.10739898681641, -0.897208034992218, 0.4384239017963409, -0.05293663218617439, 0.2343242019414902, 3433
33.57513046264648, 3.160105228424072, 41.76874160766602, -0.897208034992218, 0.4384239017963409, -0.05293663218617439, 0.2927622497081757, 3440
7.050848007202148, 17.15139389038086, 46.01657867431641, -0.9592300057411194, 0.2683789432048798, 0.08860357105731964, 1, 3463
20.4453296661377, 10.88222312927246, 25.01371192932129, -0.2694301307201385, -0.9622504711151123, -0.03849001973867416, 0.7940352559089661, 3469
21.93548583984375, 8.855381011962891, 14.21683120727539, 0.963361918926239, -0.2682018876075745, -0.001202699029818177, 0.2479725182056427, 3474
5.944532871246338, 15.0560245513916, 21.93720436096191, -0.2694301307201385, -0.9622504711151123, -0.03849001973867416, 0.4022120237350464, 3480
19.27389907836914, 11.43029403686523, 20.22350692749023, -0.2690193951129913, -0.9611444473266602, -0.06188709288835526, 0.3248181343078613, 3516
7.036111831665039, 14.84468650817871, 20.26755523681641, -0.2690193951129913, -0.9611444473266602, -0.06188709288835526, 0.3101119697093964, 3521
6.570975780487061, 14.93425369262695, 20.88609504699707, -0.2690193951129913, -0.9611444473266602, -0.06188709288835526, 0.3445976078510284, 3530
6.892324924468994, 14.84811115264893, 20.83099365234375, -0.2690193951129913, -0.9611444473266602, -0.06188709288835526, 0.3257229924201965, 3537
18.45194244384766, 11.91022682189941, 16.3814811706543, -0.2690193951129913, -0.9611444473266602, -0.06188709288835526, 0.4963617324829102, 3574
19.86504745483398, 9.81829833984375, 36.90966033935547, 0.2690542340278625, 0.9629949927330017, 0.01582671888172626, 0.4863499402999878, 3575
17.0414924621582, 12.28365802764893, 16.69481086730957, -0.2690193951129913, -0.9611444473266602, -0.06188709288835526, 0.3063185214996338, 3577
4.452402591705322, 17.93629264831543, 15.67339324951172, -0.9592300057411194, 0.2683789432048798, 0.08860357105731964, 0.5847301483154297, 3625
4.379050254821777, 15.97444343566895, 14.65996742248535, -0.2683976590633392, -0.9603803157806396, -0.07504958659410477, 0.7037279605865479, 3628
7.104549407958984, 19.24337959289551, 12.10752296447754, 0.2539814114570618, 0.9599194526672363, 0.1185246556997299, 0.2652829587459564, 3634
36.88309860229492, 5.343818664550781, 35.87939453125, 0.438102513551712, 0.8987057209014893, 0.01985358819365501, 0.3044787049293518, 3637
34.0006103515625, 3.658702373504639, 38.74823760986328, -0.897208034992218, 0.4384239017963409, -0.05293663218617439, 0.389712393283844, 3645
9.148913383483887, 14.62447452545166, 14.88939476013184, -0.2683976590633392, -0.9603803157806396, -0.07504958659410477, 0.2684018313884735, 3656
35.6379508972168, 7.642587661743164, 22.90863418579102, -0.8949059247970581, 0.4370470643043518, 0.09018431603908539, 0.3503835201263428, 3657
4.391799926757812, 15.99818801879883, 14.31282520294189, -0.2683976590633392, -0.9603803157806396, -0.07504958659410477, 0.680335521697998, 3658
4.783671855926514, 10.65768146514893, 20.76626205444336, -0.2631156742572784, -0.96475750207901, 0.003604324534535408, 0.5298615097999573, 3668
11.68854331970215, 16.66177749633789, 25.22253227233887, 0.2696308493614197, 0.9607971906661987, 0.06455949693918228, 1, 3674
36.78800201416016, 7.067722797393799, 37.28371429443359, -0.8949059247970581, 0.4370470643043518, 0.09018431603908539, 0.2146919369697571, 3698
9.271141052246094, 18.34582328796387, 13.80300807952881, 0.963361918926239, -0.2682018876075745, -0.001202699029818177, 1, 3704
17.0498046875, 7.043514728546143, 20.4760684967041, 0.9614858627319336, -0.2695168852806091, 0.05390337854623795, 1, 3707
6.308003902435303, 15.85946941375732, 9.273895263671875, -0.2683976590633392, -0.9603803157806396, -0.07504958659410477, 0.8119197487831116, 3708
21.67157173156738, 7.910133838653564, 17.05022811889648, 0.963361918926239, -0.2682018876075745, 0.001202699029818177, 0.3247892260551453, 3716
36.08742141723633, 5.701986789703369, 37.22686004638672, 0.438102513551712, 0.8987057209014893, 0.01985358819365501, 0.380086749792099, 3717
6.368226051330566, 15.66239452362061, 11.56563949584961, -0.2683976590633392, -0.9603803157806396, -0.07504958659410477, 0.3478142023086548, 3723
5.144755363464355, 11.94853973388672, 13.76604652404785, -0.9614858627319336, 0.2695168852806091, -0.05390337854623795, 1, 3748
7.592272758483887, 15.72113990783691, 6.473379611968994, -0.2683976590633392, -0.9603803157806396, -0.07504958659410477, 0.615204393863678, 3757
7.397409915924072, 15.50135707855225, 9.959390640258789, -0.2683976590633392, -0.9603803157806396, -0.07504958659410477, 0.5155450105667114, 3759
7.622733592987061, 15.46318244934082, 9.644813537597656, -0.2683976590633392, -0.9603803157806396, -0.07504958659410477, 0.648127019405365, 3769
5.990659713745117, 14.47750473022461, 40.67017364501953, -0.2686465382575989, -0.9629568457603455, -0.02330723591148853, 0.4225366115570068, 3773
22.71893119812012, 11.66134357452393, 9.615444183349609, 0.963361918926239, -0.2682018876075745, 0.001202699029818177, 1, 3799
23.20417404174805, 13.39928150177002, 17.43499565124512, 0.963361918926239, -0.2682018876075745, -0.001202699029818177, 0.2593255341053009, 3810
21.46069526672363, 14.39277458190918, 18.988525390625, 0.2684391438961029, 0.9594451785087585, 0.08605465292930603, 1, 3814
19.1094799041748, 10.79501628875732, 41.49266052246094, -0.2686465382575989, -0.9629568457603455, -0.02330723591148853, 0.3016509115695953, 3895
19.90642356872559, 16.00664138793945, 8.448992729187012, 0.2655491232872009, 0.9551842212677002, 0.1307928562164307, 1, 3907
19.07971000671387, 10.78291416168213, 42.34726715087891, -0.2686465382575989, -0.9629568457603455, -0.02330723591148853, 0.2915410995483398, 3922
21.33075332641602, 6.68946647644043, 18.94416427612305, 0.963361918926239, -0.2682018876075745, 0.001202699029818177, 1, 3945
20.59208679199219, 10.56485652923584, 33.79861831665039, -0.2686465382575989, -0.9629568457603455, -0.02330723591148853, 0.2985747754573822, 3947
21.49847030639648, 7.290146827697754, 34.68173217773438, 0.963361918926239, -0.2682018876075745, -0.001202699029818177, 1, 3951
10.25213432312012, 17.20698165893555, 23.10839653015137, 0.2696308493614197, 0.9607971906661987, 0.06455949693918228, 1, 3967
